x,y,z
-16.535399,3.347720,161.763039
-16.581119,2.875280,161.763039
-16.591279,2.321560,161.763039
-16.601439,1.884680,161.763039
-16.581119,1.376680,161.763039
-16.738599,0.934720,161.763039
-16.631919,0.497840,161.763039
-16.616679,-0.050800,161.763039
-16.763999,-0.543560,161.763039
-16.667479,-1.148080,161.763039
-16.824959,-1.605280,161.763039
-16.728439,-2.067560,161.763039
-16.819879,-2.534920,161.763039
-16.794479,-2.976880,161.763039
-16.840199,-3.403600,161.763039
-16.967199,-3.794760,161.763039
-16.941799,-4.211320,161.763039
-17.002759,-4.632960,161.763039
-16.916399,-5.090160,161.763039
-17.002759,-5.628640,161.763039
-17.089119,-6.024880,161.763039
-17.053559,-6.568440,161.763039
-17.216119,-6.985000,161.763039
-17.089119,-7.411720,161.763039
-17.170399,-7.823200,161.763039
-17.236439,-8.310880,161.763039
-17.358359,-8.854440,161.763039
-16.962119,-9.377680,161.763039
-16.525239,-9.565640,161.763039
-16.047719,-9.728200,161.763039
-15.504160,-9.875520,161.763039
-14.930120,-10.104120,161.763039
-14.432280,-10.078720,161.763039
-13.964920,-10.134600,161.763039
-13.517880,-10.149840,161.763039
-13.060680,-10.220960,161.763039
-12.618720,-10.175240,161.763039
-12.176760,-10.215880,161.763039
-11.785600,-10.342880,161.763039
-11.328400,-10.302240,161.763039
-10.881360,-10.373360,161.763039
-10.439400,-10.353040,161.763039
-10.027920,-10.363200,161.763039
-9.585960,-10.398760,161.763039
-9.138920,-10.332720,161.763039
-8.610600,-10.515600,161.763039
-8.199120,-10.515600,161.763039
-7.792720,-10.490200,161.763039
-7.366000,-10.612120,161.763039
-6.913880,-10.601960,161.763039
-6.492240,-10.561320,161.763039
-6.050280,-10.566400,161.763039
-5.623560,-10.647680,161.763039
-5.140960,-10.576560,161.763039
-4.648200,-10.581640,161.763039
-4.221480,-10.662920,161.763039
-3.799840,-10.576560,161.763039
-3.322320,-10.571480,161.763039
-2.839720,-10.546080,161.763039
-2.225040,-10.713720,161.763039
-1.778000,-10.617200,161.763039
-1.280160,-10.627360,161.763039
-0.772160,-10.601960,161.763039
-0.330200,-10.220960,161.763039
-0.330200,-9.667240,161.763039
-0.172720,-9.204960,161.763039
-0.208280,-8.798560,161.763039
-0.152400,-8.326120,161.763039
-0.193040,-7.823200,161.763039
0.030480,-7.335520,161.763039
-0.106680,-6.918960,161.763039
0.030480,-6.446520,161.763039
-0.025400,-5.963920,161.763039
0.066040,-5.547360,161.763039
0.152400,-5.105400,161.763039
0.187960,-4.673600,161.763039
0.203200,-4.216400,161.763039
0.142240,-3.759200,161.763039
0.147320,-3.322320,161.763039
0.264160,-2.895600,161.763039
0.279400,-2.494280,161.763039
0.299720,-2.077720,161.763039
0.340360,-1.681480,161.763039
0.360680,-1.275080,161.763039
0.365760,-0.782320,161.763039
0.436880,-0.314960,161.763039
0.355600,0.162560,161.763039
0.309880,0.579120,161.763039
0.360680,1.148080,161.763039
0.370840,1.610360,161.763039
0.284480,2.021840,161.763039
0.259080,2.479040,161.763039
0.304800,2.905760,161.763039
0.248920,3.327400,161.763039
0.375920,3.906520,161.763039
0.304800,4.384040,161.763039
0.264160,4.871720,161.763039
0.365760,5.415280,161.763039
0.320040,6.050280,161.763039
0.025400,6.634480,161.763039
-0.487680,7.040880,161.763039
-0.949960,7.188200,161.763039
-1.386840,7.112000,161.763039
-1.960880,7.284720,161.763039
-2.438400,7.315200,161.763039
-2.921000,7.274560,161.763039
-3.398520,7.305040,161.763039
-3.891280,7.376160,161.763039
-4.414520,7.457440,161.763039
-4.937760,7.335520,161.763039
-5.425440,7.381240,161.763039
-5.928360,7.508240,161.763039
-6.426200,7.366000,161.763039
-6.863080,7.472680,161.763039
-7.457440,7.594600,161.763039
-7.894320,7.604760,161.763039
-8.249920,7.508240,162.258339
-8.691880,7.528560,162.258339
-9.093200,7.604760,162.258339
-9.514840,7.650480,162.258339
-9.921240,7.640320,162.258339
-10.419080,7.660640,162.258339
-10.911840,7.691120,162.258339
-11.328400,7.579360,162.258339
-11.821160,7.620000,162.258339
-12.364720,7.513320,162.258339
-12.908280,7.660640,162.258339
-13.467080,7.579360,162.258339
-14.071600,7.655560,162.258339
-14.584680,7.548880,162.258339
-15.138400,7.421880,162.258339
-15.742919,7.147560,162.258339
-16.169639,6.680200,162.258339
-16.301719,6.207760,162.258339
-16.240759,5.689600,162.258339
-16.377919,5.207000,162.258339
-16.296639,4.744720,162.258339
-16.438879,4.246880,162.258339
-16.443959,3.754120,162.258339
-16.438879,3.175000,162.258339
-16.591279,2.702560,162.258339
-16.504919,2.225040,162.258339
-16.606519,1.783080,162.258339
-16.596359,1.356360,162.258339
-16.591279,0.863600,162.258339
-16.565879,0.386080,162.258339
-16.789399,-0.137160,162.258339
-16.738599,-0.629920,162.258339
-16.697959,-1.112520,162.258339
-16.718279,-1.595120,162.258339
-16.697959,-2.006600,162.258339
-16.850359,-2.438400,162.258339
-16.850359,-2.905760,162.258339
-16.850359,-3.408680,162.258339
-16.819879,-3.891280,162.258339
-16.967199,-4.272280,162.258339
-16.921479,-4.729480,162.258339
-16.997679,-5.267960,162.258339
-16.992599,-5.730240,162.258339
-17.028159,-6.223000,162.258339
-17.002759,-6.624320,162.258339
-17.124679,-7.030720,162.258339
-17.165319,-7.432040,162.258339
-17.221199,-7.955280,162.258339
-17.322799,-8.625840,162.258339
-17.038319,-9.179560,162.258339
-16.621759,-9.525000,162.258339
-16.139159,-9.707880,162.258339
-15.636239,-9.997440,162.258339
-15.153640,-10.038080,162.258339
-14.660880,-10.017760,162.258339
-14.203680,-10.073640,162.258339
-13.736320,-10.043160,162.258339
-13.299440,-10.119360,162.258339
-12.852400,-10.119360,162.258339
-12.313920,-10.271760,162.258339
-11.856720,-10.312400,162.258339
-11.389360,-10.302240,162.258339
-10.947400,-10.342880,162.258339
-10.525760,-10.408920,162.258339
-10.058400,-10.383520,162.258339
-9.570720,-10.378440,162.258339
-9.027160,-10.546080,162.258339
-8.539480,-10.444480,162.258339
-8.102600,-10.454640,162.258339
-7.711440,-10.546080,162.258339
-7.310120,-10.530840,162.258339
-6.868160,-10.505440,162.258339
-6.451600,-10.485120,162.258339
-5.994400,-10.525760,162.258339
-5.516880,-10.459720,162.258339
-5.080000,-10.510520,162.258339
-4.653280,-10.632440,162.258339
-4.251960,-10.596880,162.258339
-3.789680,-10.627360,162.258339
-3.368040,-10.617200,162.258339
-2.890520,-10.601960,162.258339
-2.473960,-10.622280,162.258339
-1.971040,-10.551160,162.258339
-1.264920,-10.637520,162.258339
-0.660400,-10.419080,162.258339
-0.558800,-9.926320,162.258339
-0.223520,-9.433560,162.258339
-0.213360,-9.022080,162.258339
-0.121920,-8.610600,162.258339
-0.198120,-8.143240,162.258339
-0.243840,-7.635240,162.258339
-0.152400,-7.162800,162.258339
-0.142240,-6.725920,162.258339
-0.050800,-6.248400,162.258339
0.015240,-5.791200,162.258339
-0.010160,-5.303520,162.258339
-0.020320,-4.871720,162.258339
0.071120,-4.389120,162.258339
0.152400,-3.896360,162.258339
-0.081280,-3.230880,162.258339
0.157480,-2.809240,162.258339
0.248920,-2.362200,162.258339
0.274320,-1.879600,162.258339
0.177800,-1.356360,162.258339
0.426720,-0.751840,162.258339
0.457200,-0.274320,162.258339
0.401320,0.193040,162.258339
0.381000,0.655320,162.258339
0.406400,1.117600,162.258339
0.421640,1.549400,162.258339
0.355600,1.996440,162.258339
0.350520,2.468880,162.258339
0.355600,2.921000,162.258339
0.320040,3.418840,162.258339
0.330200,3.860800,162.258339
0.462280,4.323080,162.258339
0.340360,4.729480,162.258339
0.345440,5.232400,162.258339
0.381000,5.847080,162.258339
0.142240,6.299200,162.258339
-0.152400,6.680200,162.258339
-0.467360,6.949440,162.258339
-0.858520,7.071360,162.258339
-1.285240,7.010400,162.258339
-1.747520,7.066280,162.258339
-2.194560,7.056120,162.258339
-2.580640,7.218680,162.258339
-3.032760,7.188200,162.258339
-3.576320,7.284720,162.258339
-4.084320,7.233920,162.258339
-4.551680,7.228840,162.258339
-4.963160,7.269480,162.258339
-5.511800,7.447280,162.258339
-5.963920,7.437120,162.258339
-6.471920,7.416800,162.258339
-6.903720,7.548880,162.258339
-7.320280,7.406640,162.258339
-0.843280,-9.443720,162.753639
-0.401320,-8.930640,162.753639
-0.325120,-8.493760,162.753639
-0.269240,-8.031480,162.753639
-0.182880,-7.493000,162.753639
-0.137160,-6.847840,162.753639
-0.233680,-6.431280,162.753639
-0.279400,-5.908040,162.753639
-0.157480,-5.283200,162.753639
-0.248920,-4.836160,162.753639
-0.060960,-4.297680,162.753639
0.030480,-3.723640,162.753639
-0.060960,-3.225800,162.753639
-0.071120,-2.794000,162.753639
0.106680,-2.291080,162.753639
-0.020320,-1.818640,162.753639
0.025400,-1.366520,162.753639
0.248920,-0.894080,162.753639
0.193040,-0.462280,162.753639
0.228600,-0.025400,162.753639
0.264160,0.370840,162.753639
0.248920,0.817880,162.753639
0.320040,1.214120,162.753639
0.360680,1.630680,162.753639
0.340360,2.072640,162.753639
0.320040,2.484120,162.753639
0.264160,2.926080,162.753639
0.325120,3.403600,162.753639
0.396240,3.850640,162.753639
0.360680,4.353560,162.753639
0.345440,4.841240,162.753639
0.375920,5.328920,162.753639
0.401320,5.989320,162.753639
0.142240,6.507480,162.753639
-0.289560,6.817360,162.753639
-0.787400,7.030720,162.753639
-1.346200,7.167880,162.753639
-1.818640,7.188200,162.753639
-2.286000,7.228840,162.753639
-2.768600,7.122160,162.753639
-3.342640,7.294880,162.753639
-3.835400,7.233920,162.753639
-4.282440,7.340600,162.753639
-4.734560,7.310120,162.753639
-5.186680,7.381240,162.753639
-5.618480,7.411720,162.753639
-6.065520,7.426960,162.753639
-6.471920,7.416800,162.753639
-6.929120,7.452360,162.753639
-7.432040,7.421880,162.753639
-7.838440,7.604760,162.753639
-8.412480,7.437120,162.753639
-8.950960,7.660640,162.753639
-9.448800,7.594600,162.753639
-9.961880,7.691120,162.753639
-10.337800,7.508240,162.753639
-10.845800,7.660640,162.753639
-11.318240,7.579360,162.753639
-11.795760,7.665720,162.753639
-12.308840,7.513320,162.753639
-12.837160,7.609840,162.753639
-13.294360,7.665720,162.753639
-13.726160,7.548880,162.753639
-14.213840,7.498080,162.753639
-14.676120,7.503160,162.753639
-15.133320,7.269480,162.753639
-15.585440,7.162800,162.753639
-15.935959,6.731000,162.753639
-16.428719,6.502400,162.753639
-16.418559,5.958840,162.753639
-16.494759,5.486400,162.753639
-16.540479,5.013960,162.753639
-16.459199,4.394200,162.753639
-16.601439,3.987800,162.753639
-16.647159,3.510280,162.753639
-16.606519,2.915920,162.753639
-16.713199,2.499360,162.753639
-16.697959,2.082800,162.753639
-16.763999,1.625600,162.753639
-16.738599,1.036320,162.753639
-16.906239,0.629920,162.753639
-16.870679,0.228600,162.753639
-16.870679,-0.177800,162.753639
-16.911319,-0.655320,162.753639
-16.860519,-1.234440,162.753639
-16.972279,-1.711960,162.753639
-17.043399,-2.159000,162.753639
-17.038319,-2.606040,162.753639
-17.043399,-3.048000,162.753639
-17.185639,-3.423920,162.753639
-17.109439,-3.886200,162.753639
-17.231359,-4.429760,162.753639
-17.236439,-4.907280,162.753639
-17.312639,-5.384800,162.753639
-17.302479,-5.989320,162.753639
-17.322799,-6.400800,162.753639
-17.373599,-6.832600,162.753639
-17.475199,-7.279640,162.753639
-17.454879,-7.874000,162.753639
-17.495519,-8.407400,162.753639
-17.592039,-8.879840,162.753639
-17.297399,-9.398000,162.753639
-16.662399,-9.784080,162.753639
-16.098519,-9.997440,162.753639
-15.585440,-10.109200,162.753639
-15.082520,-10.134600,162.753639
-14.584680,-10.165080,162.753639
-13.944600,-10.099040,162.753639
-13.477240,-10.297160,162.753639
-12.984480,-10.317480,162.753639
-12.496800,-10.388600,162.753639
-11.907520,-10.408920,162.753639
-11.465560,-10.480040,162.753639
-11.054080,-10.525760,162.753639
-10.652760,-10.581640,162.753639
-10.220960,-10.612120,162.753639
-9.733280,-10.632440,162.753639
-9.113520,-10.561320,162.753639
-8.600440,-10.668000,162.753639
-8.168640,-10.632440,162.753639
-7.721600,-10.698480,162.753639
-7.228840,-10.698480,162.753639
-6.604000,-10.622280,162.753639
-6.182360,-10.607040,162.753639
-5.735320,-10.581640,162.753639
-5.293360,-10.673080,162.753639
-4.785360,-10.749280,162.753639
-4.185920,-10.668000,162.753639
-3.769360,-10.774680,162.753639
-3.383280,-11.018520,162.753639
-2.717800,-10.708640,162.753639
-2.189480,-10.698480,162.753639
-1.747520,-10.535920,162.753639
-1.275080,-10.419080,162.753639
-0.736600,-10.429240,162.753639
-0.436880,-10.734040,162.753639
-0.345440,0.091440,163.258464
0.005080,0.726440,163.258464
0.177800,1.305560,163.258464
0.167640,1.752600,163.258464
0.223520,2.291080,163.258464
0.254000,2.794000,163.258464
0.279400,3.307080,163.258464
0.284480,3.810000,163.258464
0.294640,4.378960,163.258464
0.629920,4.902200,163.258464
0.716280,5.400040,163.258464
0.563880,5.867400,163.258464
0.441960,6.294120,163.258464
0.106680,6.791960,163.258464
-0.264160,7.066280,163.258464
-0.848360,7.320280,163.258464
-1.412240,7.335520,163.258464
-1.864360,7.360920,163.258464
-2.382520,7.350760,163.258464
-2.819400,7.493000,163.258464
-3.256280,7.452360,163.258464
-3.662680,7.493000,163.258464
-4.236720,7.467600,163.258464
-4.683760,7.564120,163.258464
-5.110480,7.691120,163.258464
-5.648960,7.645400,163.258464
-6.233160,7.584440,163.258464
-6.725920,7.604760,163.258464
-7.208520,7.736840,163.258464
-7.848600,7.823200,163.258464
-8.280400,7.437120,163.258464
-8.950960,7.523480,163.258464
-9.377680,7.487920,163.258464
-9.845040,7.452360,163.258464
-10.403840,7.686040,163.258464
-10.901680,7.630160,163.258464
-11.414760,7.543800,163.258464
-11.861800,7.620000,163.258464
-12.258040,7.493000,163.258464
-12.694920,7.396480,163.258464
-13.263880,7.543800,163.258464
-13.832840,7.518400,163.258464
-14.224000,7.437120,163.258464
-14.645640,7.493000,163.258464
-15.107920,7.406640,163.258464
-15.123160,8.112760,163.258464
-15.473680,7.711440,163.258464
-15.829279,7.391400,163.258464
-16.139159,6.934200,163.258464
-16.357599,6.527800,163.258464
-16.413479,5.938520,163.258464
-16.449039,5.425440,163.258464
-16.509999,4.963160,163.258464
-16.449039,4.338320,163.258464
-16.626839,3.835400,163.258464
-16.642079,3.362960,163.258464
-16.657319,2.951480,163.258464
-16.647159,2.519680,163.258464
-16.672559,2.016760,163.258464
-16.657319,1.549400,163.258464
-16.713199,1.056640,163.258464
-16.763999,0.645160,163.258464
-16.723359,0.167640,163.258464
-16.896079,-0.198120,163.258464
-16.763999,-0.665480,163.258464
-16.885919,-1.209040,163.258464
-16.906239,-1.676400,163.258464
-16.962119,-2.138680,163.258464
-16.982439,-2.733040,163.258464
-17.038319,-3.164840,163.258464
-17.028159,-3.591560,163.258464
-17.124679,-4.023360,163.258464
-17.205959,-4.485640,163.258464
-17.104359,-5.074920,163.258464
-17.282159,-5.623560,163.258464
-17.297399,-6.085840,163.258464
-17.409159,-6.522720,163.258464
-17.454879,-6.974840,163.258464
-17.378679,-7.574280,163.258464
-17.490439,-8.122920,163.258464
-17.485359,-8.641080,163.258464
-17.592039,-9.057640,163.258464
-17.150079,-9.392920,163.258464
-16.636999,-9.692640,163.258464
-16.118839,-9.931400,163.258464
-15.631159,-10.083800,163.258464
-15.041880,-10.099040,163.258464
-14.518640,-10.190480,163.258464
-13.939520,-10.185400,163.258464
-13.456920,-10.063480,163.258464
-12.852400,-10.236200,163.258464
-12.359640,-10.007600,163.258464
-11.795760,-10.139680,163.258464
-11.384280,-9.753600,163.258464
-3.464560,6.781800,163.734714
-3.799840,7.233920,163.734714
-4.277360,7.487920,163.734714
-4.693920,7.091680,163.734714
-5.105400,7.421880,163.734714
-5.567680,7.625080,163.734714
-6.024880,7.284720,163.734714
-6.502400,7.172960,163.734714
-6.990080,7.325360,163.734714
-7.401560,7.172960,163.734714
-7.940040,7.310120,163.734714
-8.453120,7.360920,163.734714
-8.905240,7.366000,163.734714
-9.357360,7.264400,163.734714
-9.733280,7.406640,163.734714
-10.149840,7.482840,163.734714
-10.723880,7.523480,163.734714
-11.191240,7.457440,163.734714
-11.678920,7.447280,163.734714
-12.273280,7.513320,163.734714
-12.735560,7.533640,163.734714
-13.147040,7.518400,163.734714
-13.756640,7.569200,163.734714
-14.213840,7.472680,163.734714
-14.808200,7.487920,163.734714
-15.265400,7.213600,163.734714
-15.646399,6.934200,163.734714
-16.154399,6.969760,163.734714
-16.276319,6.471920,163.734714
-16.311879,5.958840,163.734714
-16.377919,5.455920,163.734714
-16.433799,4.973320,163.734714
-16.408399,4.384040,163.734714
-16.520159,3.987800,163.734714
-16.530319,3.581400,163.734714
-16.703039,3.149600,163.734714
-16.682719,2.717800,163.734714
-16.636999,2.113280,163.734714
-16.794479,1.671320,163.734714
-16.703039,1.107440,163.734714
-16.763999,0.508000,163.734714
-16.814799,-0.025400,163.734714
-16.753839,-0.568960,163.734714
-16.875759,-1.041400,163.734714
-16.890999,-1.468120,163.734714
-16.972279,-1.925320,163.734714
-16.926559,-2.514600,163.734714
-17.038319,-2.900680,163.734714
-17.053559,-3.317240,163.734714
-17.139919,-3.723640,163.734714
-17.155159,-4.170680,163.734714
-17.134839,-4.597400,163.734714
-17.144999,-5.196840,163.734714
-17.297399,-5.572760,163.734714
-17.322799,-5.989320,163.734714
-17.424399,-6.375400,163.734714
-17.353279,-6.771640,163.734714
-17.388839,-7.223760,163.734714
-17.480279,-7.726680,163.734714
-17.454879,-8.183880,163.734714
-17.444719,-8.656320,163.734714
-17.160239,-9.189720,163.734714
-16.936719,-9.718040,163.734714
-17.063719,-10.342880,163.734714
-9.2475914E-1,-1.0408920E1,1.4144646E2
-6.6059923E-1,-9.9821999,1.4144646E2
-3.4563922E-1,-9.6367599,1.4144646E2
-5.4375904E-1,-9.1897199,1.4144646E2
-4.3707919E-1,-8.7934799,1.4144646E2
-4.8279917E-1,-8.2905600,1.4144646E2
-6.0471934E-1,-7.8079597,1.4144646E2
-4.9295938E-1,-7.2999598,1.4144646E2
-4.4723916E-1,-6.7462399,1.4144646E2
-3.5071921E-1,-6.1518795,1.4144646E2
-3.4055924E-1,-5.6286399,1.4144646E2
-2.5927925E-1,-5.0698397,1.4144646E2
-2.4403929E-1,-4.4094398,1.4144646E2
-4.2691922E-1,-3.9573199,1.4144646E2
-1.9831919E-1,-3.3172399,1.4144646E2
-1.8307900E-1,-2.8397200,1.4144646E2
-1.7799925E-1,-2.3926799,1.4144646E2
-1.1195921E-1,-1.9507202,1.4144646E2
9.9608898E-3,-1.3665204,1.4144646E2
-2.5599241E-2,-9.4996012E-1,1.4144646E2
1.1156082E-1,-3.8100007E-1,1.4144646E2
-5.6079149E-2,-1.5240099E-2,1.4144646E2
9.6320867E-2,5.3339999E-1,1.4144646E2
-1.0359048E-2,1.0261598,1.4144646E2
3.3508086E-1,1.4376399,1.4144646E2
-1.0359048E-2,1.7881597,1.4144646E2
2.3348081E-1,2.1234399,1.4144646E2
9.6320867E-2,2.9159200,1.4144646E2
-1.7291903E-1,3.3832799,1.4144646E2
-1.1195921E-1,4.0182799,1.4144646E2
-9.1639280E-2,4.5923199,1.4144646E2
-1.0687923E-1,5.1257199,1.4144646E2
-1.4243912E-1,5.7454798,1.4144646E2
-2.4403929E-1,6.2128403,1.4144646E2
8.5028767E-2,6.7158241,1.4131887E2
-3.3661127E-1,6.9393444,1.4131887E2
-5.4489123E-1,7.4067039,1.4131887E2
-1.5422998,-1.1069319E1,1.4144646E2
-7.9267907E-1,-1.0139679E1,1.4192270E2
-8.4855914E-1,-9.6875600,1.4192270E2
-6.9615912E-1,-9.1135199,1.4192270E2
-6.8091917E-1,-8.7071199,1.4192270E2
-5.7931917E-1,-8.2804000,1.4192270E2
-6.0979908E-1,-7.8790798,1.4192270E2
-5.5899924E-1,-7.4066398,1.4192270E2
-5.1327931E-1,-6.8884799,1.4192270E2
-2.4911904E-1,-6.4414398,1.4192270E2
-1.5767931E-1,-5.9689996,1.4192270E2
-1.6783916E-1,-5.5524396,1.4192270E2
-1.6275906E-1,-5.1206398,1.4192270E2
-8.6559057E-2,-4.7040798,1.4192270E2
-1.2211918E-1,-4.2163999,1.4192270E2
-7.6399087E-2,-3.7185599,1.4192270E2
-2.1355915E-1,-3.2359600,1.4192270E2
-3.1515908E-1,-2.6771600,1.4192270E2
2.5200843E-2,-2.2047200,1.4192270E2
-2.1863913E-1,-1.5087599,1.4192270E2
1.1664080E-1,-1.1176000,1.4192270E2
-1.5259909E-1,-7.6708012E-1,1.4192270E2
-2.0847916E-1,-2.9972003E-1,1.4192270E2
2.0808100E-1,1.5748001E-1,1.4192270E2
-1.9323921E-1,5.7911992E-1,1.4192270E2
8.6160898E-2,1.0261599,1.4192270E2
1.1156082E-1,1.5392400,1.4192270E2
4.9256074E-1,2.0218399,1.4192270E2
4.5192074E-1,2.5247600,1.4192270E2
3.5540080E-1,2.9362400,1.4192270E2
2.0300078E-1,3.3121600,1.4192270E2
-1.3735926E-1,3.8354001,1.4192270E2
-1.7291903E-1,4.3230800,1.4192270E2
-4.0839195E-2,4.8666400,1.4192270E2
-8.6559057E-2,5.2679598,1.4192270E2
-8.6559057E-2,5.8572404,1.4192270E2
-1.7799925E-1,6.4973201,1.4192270E2
-5.4883927E-1,6.8275201,1.4192270E2
-5.2851921E-1,7.4879200,1.4192270E2
-8.2315945E-1,7.1170804,1.4192270E2
-1.0720791,7.6403200,1.4192270E2
-8.3839917E-1,-1.0627360E1,1.4192270E2
-2.1863913E-1,-3.4137599,1.4243706E2
-1.8815922E-1,-2.7787600,1.4243706E2
-9.1639280E-2,-2.0929599,1.4243706E2
-1.2719917E-1,-1.4681199,1.4243706E2
-3.5759210E-2,-8.4836006E-1,1.4243706E2
-5.6079149E-2,-2.3368000E-1,1.4243706E2
-1.7799925E-1,2.0319992E-1,1.4243706E2
-1.6275906E-1,7.2643995E-1,1.4243706E2
-2.0847916E-1,1.1684000,1.4243706E2
-2.2371923E-1,1.6357598,1.4243706E2
-2.1355915E-1,2.0828000,1.4243706E2
-9.6719026E-2,2.5501599,1.4243706E2
-1.0359048E-2,2.9972000,1.4243706E2
1.8776071E-1,3.5559999,1.4243706E2
2.1824097E-1,4.0589199,1.4243706E2
2.0300078E-1,4.5110400,1.4243706E2
-1.6275906E-1,4.8869600,1.4243706E2
-2.2371923E-1,5.2933597,1.4243706E2
-1.9831919E-1,5.6946799,1.4243706E2
-2.6943898E-1,6.1976001,1.4243706E2
-4.1167926E-1,6.6852800,1.4243706E2
-6.1995917E-1,7.2999603,1.4243706E2
-9.9587941E-1,7.5895202,1.4243706E2
-1.1685993,-1.0434320E1,1.4243706E2
-6.8599915E-1,-1.0170160E1,1.4243706E2
-5.5899924E-1,-9.6773998,1.4243706E2
-5.7423907E-1,-9.0627200,1.4243706E2
-4.8787915E-1,-8.5191600,1.4243706E2
-3.5071921E-1,-8.0111598,1.4243706E2
-3.8119912E-1,-7.4167997,1.4243706E2
-3.2023918E-1,-6.9799196,1.4243706E2
-2.6943898E-1,-6.5582797,1.4243706E2
-2.2371923E-1,-6.1620397,1.4243706E2
-1.3227915E-1,-5.6591198,1.4243706E2
-2.6435923E-1,-5.0647599,1.4243706E2
-1.3227915E-1,-4.4957997,1.4243706E2
-3.5759210E-2,-4.0081197,1.4243706E2
-7.1647906E-1,-1.0195560E1,1.4291330E2
-4.6755921E-1,-9.6824800,1.4291330E2
-5.5899924E-1,-9.2608401,1.4291330E2
-5.1327931E-1,-8.8290398,1.4291330E2
-5.5391913E-1,-8.4175598,1.4291330E2
-4.1167926E-1,-8.0263998,1.4291330E2
-3.7103915E-1,-7.5437996,1.4291330E2
-3.3547902E-1,-7.0561196,1.4291330E2
-1.7291903E-1,-6.5277998,1.4291330E2
-2.4911904E-1,-5.9283597,1.4291330E2
-1.9323921E-1,-5.4660797,1.4291330E2
-9.1639280E-2,-5.0190398,1.4291330E2
2.0120859E-2,-4.5465996,1.4291330E2
2.5200843E-2,-4.0893996,1.4291330E2
-7.6399087E-2,-3.6728401,1.4291330E2
-1.7291903E-1,-3.2207200,1.4291330E2
-1.6275906E-1,-2.7990800,1.4291330E2
-1.8815922E-1,-2.3317201,1.4291330E2
-9.6719026E-2,-1.9050002,1.4291330E2
-1.5259909E-1,-1.4986002,1.4291330E2
-1.3735926E-1,-9.9568004E-1,1.4291330E2
-5.2793025E-3,-5.1815999E-1,1.4291330E2
-6.1159253E-2,-2.0319956E-2,1.4291330E2
1.2172102E-1,4.2164002E-1,1.4291330E2
1.7252087E-1,9.0424011E-1,1.4291330E2
7.0920825E-2,1.3665199,1.4291330E2
-1.8307900E-1,1.8288000,1.4291330E2
-3.3039927E-1,2.4942799,1.4291330E2
-9.1639280E-2,2.9108399,1.4291330E2
1.7252087E-1,3.3527998,1.4291330E2
1.8268084E-1,3.8150799,1.4291330E2
-1.3735926E-1,4.1554399,1.4291330E2
-1.4751923E-1,4.5618400,1.4291330E2
-6.1159253E-2,4.9580799,1.4291330E2
-1.7799925E-1,5.3593997,1.4291330E2
-1.5767931E-1,5.8470802,1.4291330E2
-1.2719917E-1,6.4414403,1.4291330E2
-3.0499911E-1,7.1221601,1.4291330E2
-6.8091917E-1,7.4269602,1.4291330E2
3.1312680E-1,7.3689184,1.4047106E2
-1.8471312E-1,7.7651584,1.4047106E2
3.0999660E-1,7.6100614,1.4090021E2
-7.8033208E-2,7.5416386,1.4096636E2
-7.8096961E-1,7.8020637,1.4128940E2
-2.1547102E-1,-9.7716159,1.4116852E2
4.8688888E-2,-9.3448963,1.4116852E2
1.7257142E-1,-8.6173028,1.4116852E2
1.6552901E-1,-8.5524158,1.4116852E2
2.7220892E-1,-8.1561756,1.4116852E2
2.2648882E-1,-7.6532561,1.4116852E2
1.0456871E-1,-7.1706559,1.4116852E2
2.1632885E-1,-6.6626560,1.4116852E2
2.6204895E-1,-6.1089360,1.4116852E2
3.5856890E-1,-5.5145757,1.4116852E2
3.6872887E-1,-4.9913361,1.4116852E2
4.5000863E-1,-4.4325358,1.4116852E2
4.6524882E-1,-3.7721362,1.4116852E2
4.7344613E-1,-3.1926316,1.4116852E2
5.1096892E-1,-2.6799364,1.4116852E2
5.2620911E-1,-2.2024164,1.4116852E2
5.3128886E-1,-1.7553765,1.4116852E2
5.9732890E-1,-1.3134166,1.4116852E2
7.1924901E-1,-7.2921663E-1,1.4116852E2
6.8368887E-1,-3.1265651E-1,1.4116852E2
8.2084870E-1,2.5630349E-1,1.4116852E2
6.5320897E-1,6.2206345E-1,1.4116852E2
8.0560898E-1,1.1707034,1.4116852E2
6.9892907E-1,1.6634634,1.4116852E2
7.3269677E-1,2.0711917,1.4116852E2
6.9892907E-1,2.4254635,1.4116852E2
7.5169181E-1,3.1428965,1.4116852E2
8.0560898E-1,3.5532236,1.4116852E2
7.2744631E-1,4.1479681,1.4116852E2
5.9732890E-1,4.6555836,1.4116852E2
6.1764883E-1,5.2296239,1.4116852E2
6.0240864E-1,5.7630233,1.4116852E2
5.6684899E-1,6.3827838,1.4116852E2
5.9332871E-1,-1.0099958E1,1.4130857E2
8.5748863E-1,-9.6732387,1.4130857E2
9.8137116E-1,-8.9456458,1.4130857E2
9.7432875E-1,-8.8807582,1.4130857E2
1.0810086,-8.4845180,1.4130857E2
1.0352885,-7.9815984,1.4130857E2
9.1336846E-1,-7.4989984,1.4130857E2
1.0251286,-6.9909985,1.4130857E2
1.0708487,-6.4372785,1.4130857E2
1.1673686,-5.8429181,1.4130857E2
1.1775286,-5.3196785,1.4130857E2
1.2588083,-4.7608783,1.4130857E2
1.2740485,-4.1004784,1.4130857E2
1.2822458,-3.5209741,1.4130857E2
1.3197686,-3.0082788,1.4130857E2
1.3350088,-2.5307588,1.4130857E2
1.3400886,-2.0837188,1.4130857E2
1.4061286,-1.6417592,1.4130857E2
1.5280487,-1.0575593,1.4130857E2
1.4924886,-6.4099894E-1,1.4130857E2
1.6296484,-7.2038928E-2,1.4130857E2
1.4620087,2.9372104E-1,1.4130857E2
1.6144087,8.4236104E-1,1.4130857E2
1.5077288,1.3351210,1.4130857E2
1.5414965,1.7428492,1.4130857E2
1.5077288,2.0971210,1.4130857E2
1.5604915,2.8145540,1.4130857E2
1.6144087,3.2248811,1.4130857E2
1.5362460,3.8196257,1.4130857E2
1.4061286,4.3272411,1.4130857E2
1.4264485,4.9012811,1.4130857E2
1.4112083,5.4346809,1.4130857E2
1.3756487,6.0544414,1.4130857E2
7.1289732,2.1711634E1,1.4234739E2
7.1696133,2.2201530E1,1.4243598E2
7.2559733,2.2676427E1,1.4252185E2
7.3728134,2.3291295E1,1.4263303E2
7.4591734,2.3891166E1,1.4274151E2
7.4032933,2.4281082E1,1.4281202E2
7.4388530,2.4785974E1,1.4290332E2
7.4794933,2.5290866E1,1.4299462E2
7.4896533,2.5795757E1,1.4308591E2
5.0582838,2.1231684E1,1.4268680E2
5.0335949,2.1722608E1,1.4277558E2
5.0562243,2.2204535E1,1.4286272E2
5.0905066,2.2829150E1,1.4297567E2
5.0965591,2.3434981E1,1.4308522E2
4.9894374,2.3814384E1,1.4315383E2
4.9577225,2.4319525E1,1.4324518E2
4.9310449,2.4825317E1,1.4333664E2
4.8741476,2.5327193E1,1.4342739E2
4.1161706,2.1485229E1,1.4230645E2
4.0589059,2.1973514E1,1.4239474E2
4.0494561,2.2455865E1,1.4248197E2
4.0421509,2.3081349E1,1.4259507E2
4.0079245,2.3686273E1,1.4270446E2
3.8758156,2.4057970E1,1.4277167E2
3.8105947,2.4559986E1,1.4286246E2
3.7503574,2.5062979E1,1.4295341E2
3.6602253,2.5560119E1,1.4304331E2
6.0363159,2.1128733E1,1.4268680E2
6.0116270,2.1619657E1,1.4277558E2
6.0342564,2.2101584E1,1.4286272E2
6.0685387,2.2726199E1,1.4297567E2
6.0745912,2.3332030E1,1.4308522E2
5.9674695,2.3711433E1,1.4315383E2
5.9357546,2.4216574E1,1.4324518E2
5.9090770,2.4722366E1,1.4333664E2
5.8521797,2.5224242E1,1.4342739E2
5.2641854,2.9560750E1,1.4355739E2
5.2394965,3.0051674E1,1.4364617E2
5.2621259,3.0533602E1,1.4373331E2
5.2964082,3.1158217E1,1.4384626E2
5.3024607,3.1764049E1,1.4395581E2
5.1953390,3.2143451E1,1.4402442E2
5.1636241,3.2648593E1,1.4411577E2
5.1369465,3.3154384E1,1.4420723E2
5.0800492,3.3656261E1,1.4429798E2
6.2422175,2.9457799E1,1.4355739E2
6.2175287,2.9948723E1,1.4364617E2
6.2401580,3.0430651E1,1.4373331E2
6.2744404,3.1055266E1,1.4384626E2
6.2804929,3.1661098E1,1.4395581E2
6.1733711,3.2040500E1,1.4402442E2
6.1416562,3.2545642E1,1.4411577E2
6.1149786,3.3051433E1,1.4420723E2
6.0580813,3.3553310E1,1.4429798E2
6.9230720,2.5597837E1,1.4307288E2
6.9637122,2.6087734E1,1.4316147E2
7.0500721,2.6562631E1,1.4324735E2
7.1669123,2.7177499E1,1.4335853E2
7.2532722,2.7777370E1,1.4346700E2
7.1973922,2.8167286E1,1.4353751E2
7.2329518,2.8672178E1,1.4362881E2
7.2735922,2.9177070E1,1.4372011E2
7.2837522,2.9681960E1,1.4381141E2
4.9894374,2.6306276E1,1.4351658E2
4.9577225,2.6811417E1,1.4360792E2
4.9310449,2.7317209E1,1.4369939E2
4.8741476,2.7819085E1,1.4379014E2
5.9674695,2.6203325E1,1.4351658E2
5.9357546,2.6708466E1,1.4360792E2
5.9090770,2.7214258E1,1.4369939E2
5.8521797,2.7716134E1,1.4379014E2
3.8569797,2.6802374E1,1.4315382E2
3.8252648,2.7307514E1,1.4324516E2
3.7985872,2.7813307E1,1.4333662E2
3.7416899,2.8315183E1,1.4342737E2
3.0495545,2.2205884E1,1.4181624E2
2.9922899,2.2694169E1,1.4190454E2
2.9828400,2.3176521E1,1.4199176E2
2.9755349,2.3802004E1,1.4210487E2
2.9413084,2.4406928E1,1.4221426E2
2.8091995,2.4778625E1,1.4228147E2
2.7439787,2.5280642E1,1.4237225E2
2.6837413,2.5783634E1,1.4246321E2
2.5936093,2.6280775E1,1.4255310E2
2.7903636,2.7523029E1,1.4266361E2
2.7586487,2.8028170E1,1.4275496E2
2.7319711,2.8533962E1,1.4284642E2
2.6750738,2.9035838E1,1.4293717E2
7.0999273,3.2455337E1,1.4387931E2
7.0682123,3.2960476E1,1.4397066E2
7.0415347,3.3466269E1,1.4406212E2
6.9846374,3.3968145E1,1.4415287E2
2.0927630,1.9647696E1,1.4294164E2
2.2959630,1.9083817E1,1.4294164E2
2.3975630,1.8570736E1,1.4294164E2
2.1283229,1.7945897E1,1.4294164E2
2.6515629,1.7737616E1,1.4294164E2
2.8242829,1.7260096E1,1.4294164E2
2.9462030,1.6833376E1,1.4294164E2
2.9055629,1.6183136E1,1.4294164E2
2.6464830,1.5563376E1,1.4294164E2
3.2916429,1.5852937E1,1.4294164E2
3.3780030,1.5202696E1,1.4294164E2
3.4796030,1.4618496E1,1.4294164E2
3.5964430,1.4201936E1,1.4294164E2
4.2365233,1.4207016E1,1.4294164E2
3.4592829,1.9474976E1,1.4344646E2
2.8496830,1.9043176E1,1.4344646E2
2.9309630,1.8570736E1,1.4344646E2
2.8344429,1.8047495E1,1.4344646E2
3.1544829,1.7493777E1,1.4344646E2
3.5151630,1.7178816E1,1.4344646E2
3.7031230,1.6772417E1,1.4344646E2
3.6980428,1.6203456E1,1.4344646E2
7.1684792,7.1963105,1.4198464E2
7.2091193,7.6862068,1.4207323E2
7.2954792,8.1611042,1.4215911E2
7.4123194,8.7759718,1.4227029E2
7.4986793,9.3758430,1.4237876E2
7.4427993,9.7657589,1.4244927E2
7.4783589,1.0270651E1,1.4254057E2
7.5189993,1.0775543E1,1.4263187E2
7.5291593,1.1280434E1,1.4272317E2
5.0977897,6.7163605,1.4232406E2
5.0731009,7.2072844,1.4241283E2
5.0957303,7.6892118,1.4249998E2
5.1300126,8.3138265,1.4261292E2
5.1360651,8.9196581,1.4272248E2
5.0289434,9.2990612,1.4279108E2
4.9972285,9.8042016,1.4288243E2
4.9705508,1.0309994E1,1.4297389E2
4.9136536,1.0811870E1,1.4306464E2
4.1556766,6.9699053,1.4194370E2
4.0984119,7.4581904,1.4203200E2
4.0889620,7.9405422,1.4211922E2
4.0816569,8.5660257,1.4223233E2
4.0474305,9.1709494,1.4234171E2
3.9153215,9.5426464,1.4240893E2
3.8501007,1.0044662E1,1.4249971E2
3.7898633,1.0547655E1,1.4259066E2
3.6997313,1.1044795E1,1.4268056E2
6.0758218,6.6134095,1.4232406E2
6.0511330,7.1043334,1.4241283E2
6.0737624,7.5862607,1.4249998E2
6.1080447,8.2108755,1.4261292E2
6.1140972,8.8167071,1.4272248E2
6.0069755,9.1961102,1.4279108E2
5.9752606,9.7012505,1.4288243E2
5.9485830,1.0207043E1,1.4297389E2
5.8916857,1.0708919E1,1.4306464E2
5.3036913,1.5045427E1,1.4319465E2
5.2790025,1.5536351E1,1.4328342E2
5.3016319,1.6018279E1,1.4337057E2
5.3359142,1.6642893E1,1.4348351E2
5.3419667,1.7248726E1,1.4359307E2
5.2348450,1.7628128E1,1.4366167E2
5.2031301,1.8133270E1,1.4375302E2
5.1764525,1.8639060E1,1.4384448E2
5.1195552,1.9140937E1,1.4393523E2
6.2817234,1.4942476E1,1.4319465E2
6.2570346,1.5433400E1,1.4328342E2
6.2796640,1.5915328E1,1.4337057E2
6.3139463,1.6539942E1,1.4348351E2
6.3199988,1.7145774E1,1.4359307E2
6.2128771,1.7525177E1,1.4366167E2
6.1811622,1.8030319E1,1.4375302E2
6.1544846,1.8536109E1,1.4384448E2
6.0975873,1.9037986E1,1.4393523E2
6.9625780,1.1082514E1,1.4271014E2
7.0032181,1.1572410E1,1.4279872E2
7.0895781,1.2047307E1,1.4288460E2
7.2064182,1.2662175E1,1.4299578E2
7.2927782,1.3262046E1,1.4310425E2
7.2368981,1.3651962E1,1.4317477E2
7.2724578,1.4156855E1,1.4326607E2
7.3130981,1.4661746E1,1.4335737E2
7.3232581,1.5166637E1,1.4344866E2
5.0289434,1.1790953E1,1.4315383E2
4.9972285,1.2296093E1,1.4324518E2
4.9705508,1.2801886E1,1.4333664E2
4.9136536,1.3303761E1,1.4342739E2
6.0069755,1.1688002E1,1.4315383E2
5.9752606,1.2193142E1,1.4324518E2
5.9485830,1.2698935E1,1.4333664E2
5.8916857,1.3200810E1,1.4342739E2
3.8964856,1.2287050E1,1.4279107E2
3.8647707,1.2792191E1,1.4288241E2
3.8380931,1.3297983E1,1.4297388E2
3.7811958,1.3799859E1,1.4306463E2
3.0890605,7.6905608,1.4145350E2
3.0317958,8.1788458,1.4154179E2
3.0223460,8.6611976,1.4162902E2
3.0150408,9.2866811,1.4174212E2
2.9808144,9.8916049,1.4185151E2
2.8487055,1.0263301E1,1.4191872E2
2.7834846,1.0765318E1,1.4200951E2
2.7232473,1.1268311E1,1.4210046E2
2.6331152,1.1765451E1,1.4219036E2
2.8298696,1.3007706E1,1.4230086E2
2.7981547,1.3512846E1,1.4239221E2
2.7714771,1.4018639E1,1.4248367E2
2.7145798,1.4520514E1,1.4257442E2
7.1394332,1.7940013E1,1.4351656E2
7.1077183,1.8445153E1,1.4360791E2
7.0810407,1.8950945E1,1.4369937E2
7.0241434,1.9452821E1,1.4379012E2
4.7162785,2.1119219E1,1.4298793E2
4.2184698,2.0940464E1,1.4298793E2
3.7922945,2.0927034E1,1.4298793E2
3.2866265,2.0947736E1,1.4298793E2
2.7610311,2.0686117E1,1.4298793E2
7.6091467,1.9820691E1,1.4388176E2
7.1671867,2.0059451E1,1.4388176E2
6.6896667,2.0186450E1,1.4388176E2
6.1715068,2.0435370E1,1.4388176E2
5.7651066,2.0521731E1,1.4388176E2
5.0945467,2.0470931E1,1.4388176E2
4.5306668,2.0298211E1,1.4388176E2
4.1242667,2.0328690E1,1.4388176E2
3.5400667,2.0191531E1,1.4388176E2
2.0073487,1.5594905E1,1.4167115E2
1.9500840,1.6083190E1,1.4175944E2
1.9406342,1.6565542E1,1.4184667E2
1.9333291,1.7191025E1,1.4195977E2
1.8991026,1.7795949E1,1.4206916E2
1.7669937,1.8167646E1,1.4213637E2
1.7017729,1.8669662E1,1.4222716E2
1.6415355,1.9172655E1,1.4231811E2
1.5514035,1.9669795E1,1.4240801E2
1.7882735,-2.6349912E1,1.4201894E2
1.9541590,-2.6925873E1,1.4201894E2
2.0219843,-2.7444500E1,1.4201894E2
1.7124543,-2.8050393E1,1.4201894E2
2.2209519,-2.8292449E1,1.4201894E2
2.3620707,-2.8780243E1,1.4201894E2
2.4558209,-2.9214024E1,1.4201894E2
2.3727402,-2.9860214E1,1.4201894E2
2.0736806,-3.0461702E1,1.4201894E2
2.7363975,-3.0214957E1,1.4201894E2
2.7800447,-3.0869454E1,1.4201894E2
2.8432188,-3.1459048E1,1.4201894E2
2.9325644,-3.1882358E1,1.4201894E2
3.5716063,-3.1919155E1,1.4201894E2
3.1405715,-2.6611636E1,1.4252376E2
2.5040354,-2.7002643E1,1.4252376E2
2.5542423,-2.7479386E1,1.4252376E2
2.4237074,-2.7995194E1,1.4252376E2
2.7068472,-2.8568659E1,1.4252376E2
3.0461558,-2.8906535E1,1.4252376E2
3.2071334,-2.9324358E1,1.4252376E2
3.1648522,-2.9891767E1,1.4252376E2
6.0387628,-3.9106609E1,1.4106193E2
6.1113564,-3.8620418E1,1.4115052E2
6.2285914,-3.8152187E1,1.4123640E2
6.3853957,-3.7546277E1,1.4134757E2
6.5108041,-3.6953338E1,1.4145606E2
6.4805455,-3.6560600E1,1.4152656E2
6.5490505,-3.6059118E1,1.4161787E2
6.6226253,-3.5557966E1,1.4170917E2
6.6657850,-3.5054821E1,1.4180046E2
3.9411167,-3.9450103E1,1.4140135E2
3.9485887,-3.8958614E1,1.4149012E2
4.0026892,-3.8479196E1,1.4157727E2
4.0777499,-3.7858161E1,1.4169022E2
4.1234126,-3.7254022E1,1.4179977E2
4.0413345,-3.6868425E1,1.4186838E2
4.0427252,-3.6362293E1,1.4195973E2
4.0491849,-3.5855840E1,1.4205119E2
4.0252336,-3.5351320E1,1.4214194E2
3.0176028,-3.9135482E1,1.4102099E2
2.9923963,-3.8644496E1,1.4110929E2
3.0145140,-3.8162559E1,1.4119651E2
3.0481331,-3.7537937E1,1.4130963E2
3.0535438,-3.6932071E1,1.4141900E2
2.9460279,-3.6552530E1,1.4148622E2
2.9137803,-3.6047321E1,1.4157700E2
2.8865692,-3.5541465E1,1.4166796E2
2.8291445,-3.5039497E1,1.4175785E2
4.9103209,-3.9616798E1,1.4140135E2
4.9177930,-3.9125312E1,1.4149012E2
4.9718935,-3.8645895E1,1.4157727E2
5.0469541,-3.8024860E1,1.4169022E2
5.0926172,-3.7420721E1,1.4179977E2
5.0105388,-3.7035127E1,1.4186838E2
5.0119297,-3.6528993E1,1.4195973E2
5.0183894,-3.6022539E1,1.4205119E2
4.9944384,-3.5518014E1,1.4214194E2
4.6913239,-3.1152331E1,1.4227194E2
4.6987960,-3.0660844E1,1.4236071E2
4.7528965,-3.0181428E1,1.4244786E2
4.8279571,-2.9560393E1,1.4256080E2
4.8736202,-2.8956254E1,1.4267036E2
4.7915420,-2.8570658E1,1.4273896E2
4.7929329,-2.8064523E1,1.4283031E2
4.7993927,-2.7558070E1,1.4292177E2
4.7754414,-2.7053547E1,1.4301252E2
5.6605288,-3.1319028E1,1.4227194E2
5.6680009,-3.0827541E1,1.4236071E2
5.7221014,-3.0348125E1,1.4244786E2
5.7971620,-2.9727090E1,1.4256080E2
5.8428246,-2.9122951E1,1.4267036E2
5.7607467,-2.8737355E1,1.4273896E2
5.7621376,-2.8231220E1,1.4283031E2
5.7685973,-2.7724768E1,1.4292177E2
5.7446463,-2.7220244E1,1.4301252E2
6.0874719,-3.5215257E1,1.4178742E2
6.1600658,-3.4729070E1,1.4187602E2
6.2773010,-3.4260837E1,1.4196189E2
6.4341051,-3.3654928E1,1.4207307E2
6.5595138,-3.3061988E1,1.4218155E2
6.5292551,-3.2669254E1,1.4225205E2
6.5977602,-3.2167766E1,1.4234336E2
6.6713352,-3.1666612E1,1.4243466E2
6.7144947,-3.1163467E1,1.4252595E2
4.2043118,-3.4381874E1,1.4223112E2
4.2057025,-3.3875740E1,1.4232247E2
4.2121624,-3.3369283E1,1.4241393E2
4.1882116,-3.2864761E1,1.4250468E2
5.1735165,-3.4548568E1,1.4223112E2
5.1749072,-3.4042436E1,1.4232247E2
5.1813671,-3.3535982E1,1.4241393E2
5.1574158,-3.3031457E1,1.4250468E2
3.1067252,-3.3812768E1,1.4186836E2
3.1081159,-3.3306636E1,1.4195970E2
3.1145757,-3.2800180E1,1.4205117E2
3.0906246,-3.2295658E1,1.4214192E2
2.0895259,-3.3023897E1,1.4137815E2
2.0909165,-3.2517763E1,1.4146950E2
2.0973765,-3.2011308E1,1.4156096E2
2.0734252,-3.1506784E1,1.4165171E2
6.7124507,-2.8384006E1,1.4259385E2
6.7138414,-2.7877874E1,1.4268520E2
6.7203013,-2.7371420E1,1.4277666E2
6.6963500,-2.6866897E1,1.4286741E2
4.5024139,-2.5053125E1,1.4206523E2
3.9939803,-2.5198940E1,1.4206523E2
3.5678391,-2.5184467E1,1.4206523E2
3.0646078,-2.5130737E1,1.4206523E2
2.5230268,-2.5357421E1,1.4206523E2
7.3041610,-2.6538076E1,1.4295906E2
6.8787627,-2.6270922E1,1.4295906E2
6.4105710,-2.6112964E1,1.4295906E2
5.9098007,-2.5880720E1,1.4305913E2
5.5099191,-2.5767964E1,1.4305913E2
4.8374724,-2.5774799E1,1.4305913E2
4.2635035,-2.5910270E1,1.4305913E2
3.8599672,-2.5853276E1,1.4305913E2
3.2680473,-2.5951933E1,1.4305913E2
2.4292359,-1.1253964E1,1.4278980E2
2.5972225,-1.1829196E1,1.4277805E2
2.6671397,-1.2347522E1,1.4277316E2
2.8693113,-1.3194595E1,1.4275902E2
3.0122082,-1.3681769E1,1.4274903E2
3.1076173,-1.4115136E1,1.4274236E2
3.0275521,-1.4761682E1,1.4274796E2
2.7318422,-1.5364469E1,1.4276864E2
3.3918642,-1.5114835E1,1.4272248E2
3.4382541,-1.5769137E1,1.4271924E2
3.5038402,-1.6358452E1,1.4271466E2
3.5948097,-1.6781368E1,1.4270829E2
4.2324490,-1.6815374E1,1.4266371E2
3.8145802,-1.1509786E1,1.4319898E2
3.1813032,-1.1903565E1,1.4324326E2
3.2334623,-1.2380086E1,1.4323962E2
3.1054918,-1.2896458E1,1.4324856E2
3.3904349,-1.3468682E1,1.4322864E2
3.7303848,-1.3805074E1,1.4320487E2
3.8927877,-1.4222191E1,1.4319351E2
3.8530795,-1.4789779E1,1.4319629E2
4.5907564,-2.4344636E1,1.4201957E2
4.6022622,-2.3853122E1,1.4210775E2
4.6602230,-2.3373476E1,1.4219106E2
4.7402756,-2.2752119E1,1.4229868E2
4.7908396,-2.2147787E1,1.4240497E2
4.7120685,-2.1762552E1,1.4247925E2
4.7176251,-2.1256418E1,1.4257043E2
4.7282447,-2.0749938E1,1.4266137E2
4.7084870,-2.0245527E1,1.4275373E2
3.6415989,-2.4034051E1,1.4170466E2
3.6204762,-2.3543181E1,1.4179465E2
3.6465256,-2.3061153E1,1.4188026E2
3.6852331,-2.2436389E1,1.4199093E2
3.6956248,-2.1830504E1,1.4209986E2
3.5914077,-2.1451435E1,1.4217453E2
3.5633733,-2.0946372E1,1.4226750E2
3.5403704,-2.0440641E1,1.4236027E2
3.4871733,-1.9938927E1,1.4245412E2
5.5583162,-2.4507103E1,1.4195191E2
5.5698225,-2.4015589E1,1.4204009E2
5.6277828,-2.3535942E1,1.4212340E2
5.7078356,-2.2914585E1,1.4223102E2
5.7583994,-2.2310254E1,1.4233731E2
5.6796290,-2.1925018E1,1.4241159E2
5.6851859,-2.1418884E1,1.4250277E2
5.6958055,-2.0912405E1,1.4259371E2
5.6760468,-2.0407992E1,1.4268607E2
5.3637404,-1.6043674E1,1.4283823E2
5.3752474,-1.5552156E1,1.4292641E2
5.4332082,-1.5072509E1,1.4300973E2
5.5132610,-1.4451152E1,1.4311735E2
5.5638248,-1.3846818E1,1.4322364E2
5.4850544,-1.3461585E1,1.4329792E2
5.4906113,-1.2955449E1,1.4338910E2
5.5012307,-1.2448973E1,1.4348004E2
5.4814724,-1.1944559E1,1.4357240E2
6.3313007,-1.6206139E1,1.4277057E2
6.3428072,-1.5714624E1,1.4285876E2
6.4007687,-1.5234975E1,1.4294207E2
6.4808211,-1.4613618E1,1.4304969E2
6.5313849,-1.4009285E1,1.4315598E2
6.4526147,-1.3624052E1,1.4323027E2
6.4581713,-1.3117915E1,1.4332144E2
6.4687910,-1.2611439E1,1.4341239E2
6.4490327,-1.2107025E1,1.4350474E2
4.8891291,-1.9275307E1,1.4283050E2
4.8946859,-1.8769172E1,1.4292169E2
4.9053053,-1.8262695E1,1.4301263E2
4.8855471,-1.7758281E1,1.4310499E2
5.8566894,-1.9437773E1,1.4276285E2
5.8622457,-1.8931639E1,1.4285403E2
5.8728654,-1.8425162E1,1.4294497E2
5.8531076,-1.7920748E1,1.4303733E2
3.7664442,-1.8711000E1,1.4254536E2
3.7720005,-1.8204865E1,1.4263655E2
3.7826199,-1.7698389E1,1.4272748E2
3.7628622,-1.7193974E1,1.4281984E2
2.5892589,-2.3249625E1,1.4128684E2
2.5681359,-2.2758753E1,1.4137683E2
2.5941853,-2.2276725E1,1.4146245E2
2.6328930,-2.1651963E1,1.4157312E2
2.6432843,-2.1046078E1,1.4168205E2
2.5390672,-2.0667009E1,1.4175671E2
2.5110328,-2.0161948E1,1.4184968E2
2.4880301,-1.9656216E1,1.4194245E2
2.4348330,-1.9154499E1,1.4203630E2
2.7141036,-1.7926574E1,1.4212755E2
2.7196602,-1.7420439E1,1.4221874E2
2.7302794,-1.6913961E1,1.4230968E2
2.7105219,-1.6409548E1,1.4240203E2
7.3903307,-1.3266553E1,1.4301922E2
7.3958873,-1.2760420E1,1.4311040E2
7.4065070,-1.2253942E1,1.4320135E2
7.3867487,-1.1749529E1,1.4329370E2
5.1343243,-9.9453477,1.4264705E2
4.6277682,-1.0093379E1,1.4268247E2
4.2026064,-1.0080766E1,1.4271220E2
3.7003715,-1.0029232E1,1.4274732E2
3.1611015,-1.0258277E1,1.4278503E2
7.9980330,-1.1418059E1,1.4334281E2
7.5725131,-1.1152763E1,1.4337257E2
7.1047787,-1.0996850E1,1.4340527E2
6.6040043,-1.0716760E1,1.4344029E2
6.2046098,-1.0605751E1,1.4346822E2
5.5338370,-1.0615519E1,1.4351512E2
4.9618616,-1.0753493E1,1.4355512E2
4.5590634,-1.0698260E1,1.4358329E2
3.9690204,-1.0799499E1,1.4362455E2
2.6146796,4.8681699,1.4294164E2
2.7316777,3.5696405,1.4294164E2
2.7813619,3.0489624,1.4294164E2
2.4508751,2.4542409,1.4294164E2
2.9506152,2.1945859,1.4294164E2
3.0746243,1.7021642,1.4294164E2
3.1531787,1.2653762,1.4294164E2
3.0475968,6.2247961E-1,1.4294164E2
2.7277278,3.1795070E-2,1.4294164E2
3.3986522,2.5526116E-1,1.4294164E2
3.4194313,-4.0036036E-1,1.4294164E2
3.4619904,-9.9180012E-1,1.4294164E2
3.5365082,-1.4179700,1.4294164E2
4.1738768,-1.4770442,1.4294164E2
3.9570195,4.5594098,1.4344646E2
3.2785398,3.4737280,1.4344646E2
3.3120781,2.9955220,1.4344646E2
3.1636212,2.4845838,1.4344646E2
3.4265749,1.9015872,1.4344646E2
3.7538849,1.5520756,1.4344646E2
3.9001828,1.1288893,1.4344646E2
3.8381252,5.6330081E-1,1.4344646E2
6.3886916,-8.7462229,1.4198464E2
6.4782090,-8.2628631,1.4207323E2
6.6117135,-7.7990072,1.4215911E2
6.7895683,-7.1989393,1.4227029E2
6.9355937,-6.6107386,1.4237876E2
6.9190595,-6.2171859,1.4244927E2
7.0050246,-5.7183966,1.4254057E2
7.0960446,-5.2201167,1.4263187E2
7.1567375,-4.7187842,1.4272317E2
4.2803355,-9.0162994,1.4232406E2
4.3049557,-8.5253720,1.4241283E2
4.3757545,-8.0481367,1.4249998E2
4.4724433,-7.4300996,1.4261292E2
4.5391625,-6.8279224,1.4272248E2
4.4705914,-6.4396959,1.4279108E2
4.4896451,-5.9339197,1.4288243E2
4.5137761,-5.4279992,1.4297389E2
4.5074471,-4.9229482,1.4306464E2
3.3683647,-8.6696419,1.4194370E2
3.3603085,-8.1780765,1.4203200E2
3.3992321,-7.6972047,1.4211922E2
3.4546297,-7.0741363,1.4223233E2
3.4811817,-6.4688273,1.4234171E2
3.3869770,-6.0857648,1.4240893E2
3.3723804,-5.5797398,1.4249971E2
3.3628399,-5.0732429,1.4259066E2
3.3229689,-4.5695736,1.4268056E2
5.2431322,-9.2167198,1.4232406E2
5.2677524,-8.7257921,1.4241283E2
5.3385512,-8.2485568,1.4249998E2
5.4352400,-7.6305196,1.4261292E2
5.5019592,-7.0283426,1.4272248E2
5.4333882,-6.6401160,1.4279108E2
5.4524418,-6.1343400,1.4288243E2
5.4765728,-5.6284195,1.4297389E2
5.4702438,-5.1233683,1.4306464E2
5.3196743,-7.4976852E-1,1.4319465E2
5.3442944,-2.5884120E-1,1.4328342E2
5.4150933,2.1839418E-1,1.4337057E2
5.5117820,8.3643153E-1,1.4348351E2
5.5785013,1.4386096,1.4359307E2
5.5099300,1.8268345,1.4366167E2
5.5289839,2.3326124,1.4375302E2
5.5818003,3.5556606,1.4384448E2
5.5754715,4.0607126,1.4393523E2
6.2824710,-9.5018880E-1,1.4319465E2
6.3070911,-4.5926135E-1,1.4328342E2
6.3778899,1.7973982E-2,1.4337057E2
6.4745787,6.3601133E-1,1.4348351E2
6.5412980,1.2381889,1.4359307E2
6.4727267,1.6264145,1.4366167E2
6.4917806,2.1321924,1.4375302E2
6.5445970,3.3552402,1.4384448E2
6.5382682,3.8602924,1.4393523E2
6.5731776,-4.8589434,1.4271014E2
6.6626951,-4.3755837,1.4279872E2
6.7961996,-3.9117279,1.4288460E2
6.9740543,-3.3116600,1.4299578E2
7.1200797,-2.7234593,1.4310425E2
7.1035459,-2.3299067,1.4317477E2
7.1895105,-1.8311172,1.4326607E2
7.2805306,-1.3328373,1.4335737E2
7.3412234,-8.3150489E-1,1.4344866E2
4.7202491,-3.9603419,1.4315383E2
4.7393029,-3.4545657,1.4324518E2
4.7634339,-2.9486453,1.4333664E2
4.7571048,-2.4435942,1.4342739E2
5.6830458,-4.1607621,1.4315383E2
5.7020996,-3.6549860,1.4324518E2
5.7262306,-3.1490654,1.4333664E2
5.7199015,-2.6440143,1.4342739E2
3.6431924,-3.3532817,1.4279107E2
3.6622462,-2.8475055,1.4288241E2
3.6863771,-2.3415850,1.4297388E2
3.6800481,-1.8365341,1.4306463E2
2.3793165,-7.8457502,1.4145350E2
2.3712602,-7.3541847,1.4154179E2
2.4101838,-6.8733130,1.4162902E2
2.4655814,-6.2502447,1.4174212E2
2.4921333,-5.6449357,1.4185151E2
2.3979287,-5.2618732,1.4191872E2
2.3833320,-4.7558481,1.4200951E2
2.3737917,-4.2493511,1.4210046E2
2.3339207,-3.7456820,1.4219036E2
2.6541441,-2.5293900,1.4230086E2
2.6731978,-2.0236139,1.4239221E2
2.6973288,-1.5176934,1.4248367E2
2.6909998,-1.0126425,1.4257442E2
7.4648683,2.6634632,1.4351656E2
7.4839220,3.1692383,1.4360791E2
7.5080529,3.6751589,1.4369937E2
7.5017238,4.1802099,1.4379012E2
5.3724241,6.0694441,1.4298793E2
4.8592108,5.9414627,1.4298793E2
4.4338344,5.9707980,1.4298793E2
3.9327847,6.0420582,1.4298793E2
3.3836227,5.8344132,1.4298793E2
8.1206398,4.4876180,1.4388176E2
7.7048243,4.7694561,1.4388176E2
7.2424309,4.9436577,1.4388176E2
6.7518169,5.2432392,1.4388176E2
6.3561137,5.3698821,1.4388176E2
5.6838382,5.3865196,1.4388176E2
5.1054910,5.2711627,1.4388176E2
4.7041894,5.3422050,1.4388176E2
4.1091871,5.2642658,1.4388176E2
2.0949682,1.2719838E-1,1.4167115E2
2.0869119,6.1876386E-1,1.4175944E2
2.1258355,1.0996356,1.4184667E2
2.1812332,1.7227038,1.4195977E2
2.2077851,2.3280129,1.4206916E2
2.1135804,2.7110756,1.4213637E2
2.0989838,3.2171005,1.4222716E2
2.0894435,3.7235975,1.4231811E2
2.0782580,4.9443958,1.4240801E2
7.6468518,-7.5946187E-1,1.4245296E2
7.7363693,-2.7610217E-1,1.4254155E2
7.8698738,1.8775364E-1,1.4262743E2
8.0477287,7.8782154E-1,1.4273861E2
8.1937537,1.3760223,1.4284708E2
8.1772201,1.7695747,1.4291759E2
8.2918696,2.9854933,1.4300889E2
8.3828902,3.4837732,1.4310020E2
8.4435825,3.9851058,1.4319149E2
5.9098007,-2.5580515E1,1.4280895E2
5.5099191,-2.5467759E1,1.4280895E2
4.8374724,-2.5474594E1,1.4280895E2
4.2635035,-2.5610064E1,1.4280895E2
3.8599672,-2.5553071E1,1.4280895E2
3.2680473,-2.5651728E1,1.4280895E2
3.5123808,-9.6778078,1.4214139E2
3.0058248,-9.8258392,1.4217681E2
2.5806629,-9.8132266,1.4220654E2
2.0784280,-9.7616927,1.4224166E2
1.5391581,-9.9907374,1.4227937E2
3.9118936,-1.0347979E1,1.4300946E2
3.3399181,-1.0485953E1,1.4304946E2
2.9371199,-1.0430720E1,1.4307763E2
2.3470769,-1.0531959E1,1.4311889E2
5.0282020,6.4117228,1.4262696E2
4.5149887,6.2837407,1.4262696E2
4.0896123,6.3130764,1.4262696E2
3.5885627,6.3843364,1.4262696E2
3.0394006,6.1766915,1.4262696E2
6.8982088,5.2859361,1.4352079E2
6.4075949,5.5855176,1.4352079E2
6.0118917,5.7121605,1.4352079E2
5.3396161,5.7287976,1.4352079E2
4.7612689,5.6134409,1.4352079E2
4.3599673,5.6844837,1.4352079E2
3.7649650,5.6065440,1.4352079E2
